-32.8241 -66.831 18.8763
-32.2476 -67.5869 19.7245
-27.7799 -51.8102 11.2472
-26.5619 -47.1935 4.97466
-27.3918 -49.1932 7.52901
-27.4641 -44.7779 -9.78095
-27.9267 -45.1857 -8.67698
-28.3909 -45.591 -7.5723
-27.0057 -44.3668 -10.8849
-26.5518 -43.9523 -11.9888
-26.1011 -43.536 -13.0922
-25.6524 -43.1184 -14.1949
-25.2043 -42.701 -15.2966
-24.7565 -42.2847 -16.397
-24.311 -41.8692 -17.4964
-28.8549 -45.9944 -6.46651
-23.8705 -41.4538 -18.5951
-23.4356 -41.0387 -19.6929
-29.3183 -46.3956 -5.35964
-23.0063 -40.6245 -20.7895
-22.5831 -40.2115 -21.8851
-22.168 -39.8004 -22.9807
-21.7634 -39.3925 -24.0775
-21.3715 -38.9901 -25.1769
-20.991 -38.5959 -26.2809
-20.6155 -38.2141 -27.3911
-20.2374 -37.851 -28.5098
-19.8536 -37.5126 -29.6382
-19.4664 -37.2013 -30.7716
-19.0806 -36.9096 -31.8959
-18.6965 -36.6285 -32.9926
-18.296 -36.3644 -34.0519
-17.8414 -36.1216 -35.0731
-17.2923 -35.8839 -36.0248
-16.622 -35.6486 -36.8139
-29.779 -46.7955 -4.25138
-35.0295 -55.7898 1.91565
-35.3512 -56.2472 3.05394
-35.6207 -56.7225 4.19889
-35.8332 -57.2173 5.34871
-35.9866 -57.7319 6.50084
-36.0767 -58.2672 7.65156
-36.0952 -58.8266 8.79568
-36.0347 -59.4123 9.92671
-34.5488 -54.6215 1.81168
-33.2489 -52.6012 -0.533657
-33.6606 -53.0257 0.585914
-32.726 -51.447 -0.629249
-32.1897 -50.2977 -0.722783
-30.7742 -48.3356 -3.04505
-31.2169 -48.7414 -1.93163
-17.2808 -31.0347 -34.4256
-17.8345 -30.6419 -32.3985
4.87249 -30.0438 -37.8768
-18.4173 -30.2518 -30.3637
-20.6528 -37.6821 -7.58976
-22.9182 -40.8355 -1.64005
-18.8993 -29.4741 -29.4761
-24.4888 -43.5846 3.30059
-35.3923 -61.3197 13.1775
-35.0421 -61.9989 14.1999
-34.639 -62.6951 15.1916
-35.6788 -60.6606 12.1229
-35.8946 -60.0242 11.0378
-34.1941 -63.4047 16.1561
-33.7168 -64.1255 17.0967
-33.2123 -64.8573 18.0144
-23.1984 -53.6169 21.2047
-23.3224 -54.8575 21.3592
-23.0727 -52.3776 21.0556
-22.9432 -51.1394 20.9093
-22.805 -49.9017 20.7631
-22.6495 -48.6658 20.6137
-23.4456 -56.1 21.5225
-22.4679 -47.4321 20.4587
-23.5681 -57.3443 21.6977
-22.2542 -46.201 20.2984
-20.5339 -42.9085 22.8193
-20.0831 -42.242 23.6821
-19.6401 -41.5673 24.5261
-19.1929 -40.8784 25.3796
-21.0041 -43.5852 21.9327
-18.738 -40.1796 26.2572
-18.2741 -39.4748 27.1538
-17.7964 -38.7708 28.0607
-21.4952 -44.2763 21.0351
-17.2978 -38.0771 28.9705
-18.9154 -47.0858 33.5873
-18.5938 -48.3961 33.2278
-19.1139 -43.7655 35.0275
-16.7746 -37.4034 29.8783
-18.6582 -36.8528 18.7832
-17.8123 -35.5596 9.47105
-16.0611 -29.8461 -4.18779
-17.4928 -37.2015 26.6882
-14.8721 -24.8129 -10.6461
-14.0774 -22.7769 -11.8143
-13.0474 -21.0511 -12.5249
-16.8554 -36.955 28.7449
-7.84349 -18.0243 -15.3392
-8.46597 -30.039 33.2755
-11.7062 -31.3429 35.0622
-11.2245 -30.6302 34.7372
-9.66271 -29.9846 33.6785
-13.402 -32.604 35.1924
-13.8188 -33.4783 34.8146
-14.2082 -34.2534 34.1891
-14.649 -34.9191 33.4137
-15.1455 -35.5319 32.5625
-15.6806 -36.136 31.6786
-7.10098 -30.0217 31.6979
-16.2308 -36.7565 30.7817
-6.56815 -17.9573 -19.6114
-1.20875 -19.2807 -9.94201
-1.78383 -18.2367 -10.2982
-1.9575 -16.4718 -13.051
-2.16726 -16.2489 -22.1746
-2.27777 -15.6546 -21.5237
-2.37034 -16.8827 -22.8249
-5.93256 -22.3681 -3.67186
-3.90043 -20.0122 -6.76387
-2.117 -18.8342 -9.26005
-9.54926 -29.2469 21.7576
-8.62189 -29.3613 26.2743
-6.88839 -29.883 29.507
0.875937 -26.2863 -33.5117
6.4141 -27.0433 -34.4772
5.74726 -26.0309 -34.3847
4.93862 -24.4898 -33.3778
4.57159 -24.181 -32.5764
3.87985 -24.143 -32.0007
2.83875 -24.3064 -31.7467
1.91808 -24.8871 -32.019
-27.0287 -74.1083 24.3968
-27.9157 -73.3865 23.8332
-28.7609 -72.6476 23.2293
-29.5612 -71.8939 22.5841
-26.1052 -74.8123 24.9236
-30.3155 -71.1302 21.8985
-25.1502 -75.4987 25.4169
-31.0254 -70.3599 21.1748
-24.1675 -76.1678 25.8784
-31.6411 -68.3503 20.5461
-22.5959 -75.1561 27.6577
-23.3875 -75.6648 26.7763
-21.7923 -74.6411 28.5198
-20.974 -74.1178 29.3565
-20.1372 -73.5844 30.1592
-19.2773 -73.0412 30.9171
-18.3895 -72.4918 31.6174
-32.6822 -65.5993 18.9089
-27.597 -52.3339 12.3621
-27.3558 -52.8664 13.4635
-25.9364 -46.1376 4.82431
-26.704 -47.6463 6.14654
-26.7953 -48.1009 7.29485
-27.4071 -49.6628 8.70015
-27.3711 -50.1468 9.85118
-27.284 -50.6454 10.9884
-27.056 -53.4065 14.5499
-26.6988 -53.9544 15.6204
-26.2874 -54.5097 16.675
-25.826 -55.0713 17.7136
-25.3182 -55.6379 18.7358
-24.769 -56.2071 19.7412
-24.1838 -56.7766 20.7291
-30.2312 -47.1967 -3.14058
-34.043 -53.4614 1.71006
-31.6416 -49.1537 -0.814899
-16.8557 -33.4897 -37.0761
-16.9557 -32.5101 -36.7799
-17.1632 -31.6135 -36.2321
-16.76 -34.5484 -37.0747
-17.5133 -30.7799 -35.5161
-17.8459 -30.3045 -33.5636
-18.4129 -29.911 -31.5303
1.12314 -28.6264 -35.7851
1.47123 -29.2302 -37.9087
1.14136 -29.0078 -36.9808
2.10911 -29.3711 -38.5002
2.98313 -29.4912 -38.6513
5.30715 -29.3213 -37.1075
3.945 -29.7109 -38.4042
-21.0155 -38.099 -6.44724
-18.3398 -31.8359 -19.1466
-18.3161 -32.3064 -17.9845
-18.3336 -32.7848 -16.8254
-18.3988 -33.2685 -15.6703
-18.3999 -31.376 -20.311
-18.5155 -33.7541 -14.5207
-18.4943 -30.9303 -21.4776
-18.6842 -34.2371 -13.3774
-18.9013 -34.7141 -12.2403
-19.1613 -35.1826 -11.1082
-19.458 -35.6409 -9.9789
-19.7826 -36.0885 -8.84921
-18.6189 -30.5024 -22.6475
-20.1221 -36.5269 -7.71579
-21.3675 -38.5117 -5.29604
-18.7645 -30.0944 -23.8225
-21.7037 -38.9221 -4.13625
-18.9174 -29.7066 -25.0033
-22.0183 -39.3339 -2.96837
-19.0637 -29.3383 -26.1891
-22.3066 -39.7503 -1.79342
-23.1909 -41.2469 -0.45392
-19.1919 -28.989 -27.378
-23.4357 -41.6663 0.735949
-23.6536 -42.0943 1.93003
-19.2943 -28.6566 -28.5676
-23.8468 -42.5305 3.12952
-25.3026 -45.0842 4.67293
-24.6624 -44.0289 4.50974
-22.0043 -44.9731 20.1339
-18.376 -49.6574 32.8208
-17.3328 -39.371 35.7189
-16.7952 -38.5338 35.1147
-16.3953 -38.085 34.0749
-17.9731 -40.0139 35.9698
-18.7172 -41.8781 35.8037
-18.7003 -40.6131 35.7935
-19.3056 -42.4787 35.1511
-16.2416 -37.6484 33.0038
-19.5731 -44.4393 34.0872
-19.2742 -45.7615 33.8623
-16.2112 -37.2033 31.9027
-18.101 -36.486 20.9485
-18.733 -37.1724 20.0027
-18.5457 -36.4154 12.9868
-18.3111 -36.1482 11.7886
-18.0692 -35.8681 10.6146
-18.769 -36.6787 14.1971
-18.4145 -36.0805 8.52763
-18.1963 -35.7124 7.3648
-18.0031 -35.3182 6.19828
-17.8346 -34.8974 5.03177
-17.6846 -34.4499 3.8699
-17.5486 -33.9763 2.71532
-18.9706 -36.9472 15.4111
-17.4248 -33.4772 1.56966
-17.3106 -32.9567 0.433147
-19.1381 -37.2317 16.6242
-19.2617 -37.541 17.8343
-17.1986 -32.4237 -0.695926
-17.0809 -31.8864 -1.81974
-16.955 -31.3471 -2.93871
-16.8243 -30.8011 -4.05188
-18.1402 -36.8058 22.1747
-15.9569 -29.2584 -5.27636
-15.8542 -28.6474 -6.3617
-15.7603 -28.0167 -7.44453
-18.1415 -37.1429 23.3957
-15.6847 -27.3656 -8.52452
-18.1108 -37.5012 24.6012
-15.6369 -26.6844 -9.60405
-18.0484 -37.8901 25.7821
-15.6187 -25.9489 -10.6836
-14.9033 -24.0122 -11.6692
-13.7294 -21.8057 -12.4246
-17.418 -37.6227 27.8415
-8.97882 -18.1321 -14.8291
-11.1764 -18.9193 -14.0447
-10.0997 -18.428 -14.4006
-12.1759 -19.5848 -13.7456
-13.0712 -20.3804 -13.4928
-10.8609 -30.0733 34.0408
-13.0132 -31.6492 35.2333
-8.21604 -29.7617 32.184
-7.76679 -17.8752 -16.5555
-7.70963 -17.8245 -17.7744
-7.67301 -17.8499 -18.9977
-2.177 -16.8266 -11.8744
-2.44633 -17.274 -10.7362
-2.5512 -15.3831 -16.0399
-2.52045 -15.2691 -17.2604
-2.63486 -15.5445 -14.827
-2.54352 -15.1998 -18.4871
-2.76957 -15.7595 -13.6195
-2.61628 -15.1715 -19.7074
-2.72313 -15.1858 -20.8806
-4.48734 -18.0786 -22.1172
-3.58135 -17.89 -22.7827
-2.872 -17.5103 -23.4686
-5.49932 -18.1132 -21.4734
-6.56319 -18.0473 -20.8457
-7.0234 -22.4252 -3.25166
-7.27564 -23.2009 -2.31375
-7.54278 -23.9294 -1.32787
-5.67044 -21.5617 -4.54487
-8.66776 -26.4013 2.98613
-5.36073 -20.7318 -5.40595
-8.90536 -26.8985 4.11555
-5.01568 -19.8832 -6.27066
-3.51479 -19.218 -7.67784
-9.5411 -28.0502 7.61566
-9.73577 -28.3236 8.81822
-9.92482 -28.5479 10.0339
-3.12962 -18.478 -8.63511
-10.1076 -28.7297 11.2601
-10.283 -28.8758 12.4961
-10.4505 -28.9915 13.7426
-10.6082 -29.078 15.0066
-10.7479 -29.1326 16.3138
-10.8471 -29.1524 17.7752
-10.3391 -29.1786 18.8347
-10.4675 -29.1565 19.8443
-10.5748 -29.1372 21.0424
-9.60539 -29.2178 23.0121
-9.66112 -29.1949 24.2793
-9.7196 -29.1823 25.5578
-8.67428 -29.3578 27.6058
-8.81096 -29.3459 28.9371
-7.84877 -29.5767 29.7687
-6.97402 -29.9101 30.5255
6.10528 -27.802 -35.3928
5.72324 -28.5781 -36.2708
0.925644 -25.1753 -32.5875
0.941646 -27.843 -34.9783
0.438623 -26.9482 -34.6667
5.00921 -25.0466 -34.2853
-18.0938 -55.8272 31.8379
-18.1115 -57.0881 31.8306
-18.1319 -58.3513 31.8481
-18.1547 -59.6158 31.8876
-18.1829 -60.8811 31.9502
-18.0851 -54.5713 31.8843
-18.0963 -53.3251 31.9931
-18.2174 -62.1475 32.0323
-18.1401 -52.094 32.1844
-18.2542 -63.4164 32.1231
-18.2862 -64.6889 32.208
-18.2292 -50.8769 32.4641
-18.3072 -65.9684 32.2699
-18.3152 -67.2666 32.2907
-18.319 -68.6055 32.2501
-18.3792 -69.9502 32.1108
-17.449 -70.7305 32.4784
-17.4733 -71.9509 32.2425
-31.0003 -69.1183 21.3373
-32.1257 -66.3502 19.7798
-31.5421 -67.1085 20.6267
-27.1437 -51.1558 12.1141
-26.0882 -46.5991 5.99812
-26.8311 -48.5499 8.43414
-27.8704 -44.4486 -7.67316
-27.411 -44.0416 -8.77828
-26.9539 -43.6317 -9.88304
-28.3294 -44.8538 -6.56707
-26.5008 -43.2182 -10.9877
-26.0512 -42.8018 -12.0919
-25.6037 -42.384 -13.1951
-25.1581 -41.9651 -14.2977
-24.7159 -41.5459 -15.3999
-24.2797 -41.1257 -16.5026
-23.8536 -40.704 -17.6063
-28.7862 -45.2571 -5.45955
-23.4396 -40.2806 -18.7114
-23.0377 -39.8565 -19.8174
-29.2393 -45.6588 -4.35024
-22.647 -39.4329 -20.9243
-22.2685 -39.0108 -22.0325
-21.9059 -38.5919 -23.1436
-21.5628 -38.1782 -24.259
-21.2392 -37.7727 -25.3802
-20.9293 -37.3794 -26.5095
-20.6238 -37.0041 -27.651
-20.3146 -36.654 -28.8117
-19.9947 -36.3432 -29.9923
-19.6654 -36.0727 -31.1755
-19.334 -35.8166 -32.3409
-18.9916 -35.5578 -33.4801
-18.6075 -35.2958 -34.5861
-18.1355 -35.0269 -35.6253
-17.5233 -34.7642 -36.5039
-29.6843 -46.061 -3.23826
-34.8831 -55.075 2.94577
-35.1659 -55.5472 4.08647
-35.3922 -56.0393 5.23233
-35.5592 -56.5518 6.38117
-35.6654 -57.0848 7.52992
-35.7047 -57.6403 8.67418
-35.6687 -58.221 9.80798
-35.5533 -58.8277 10.9248
-34.3865 -53.9122 2.83971
-33.1354 -51.8714 0.489422
-33.5168 -52.3075 1.61134
-32.5967 -50.7208 0.395651
-32.0448 -49.5752 0.304462
-30.6678 -47.6022 -2.02593
-31.0855 -48.0142 -0.907324
-17.9592 -29.9947 -34.701
-18.4136 -29.573 -32.6931
4.40784 -28.9745 -37.768
-18.931 -29.1447 -30.6504
-20.4631 -36.9585 -6.57611
-22.5672 -40.1731 -0.612787
-19.3673 -28.3371 -29.7551
-24.0176 -42.9746 4.33622
-34.3877 -61.4802 15.1245
-34.7708 -60.7878 14.1197
-35.0985 -60.1133 13.0845
-33.9611 -62.187 16.1025
-35.3614 -59.4593 12.0186
-33.5008 -62.9048 17.0573
-33.0132 -63.6323 17.9909
-32.5008 -64.3693 18.9032
-24.0373 -55.5352 20.5498
-23.8887 -54.2956 20.3807
-23.7376 -53.0574 20.2184
-23.5816 -51.8204 20.0596
-23.4168 -50.5846 19.9014
-23.2365 -49.3505 19.741
-23.0324 -48.1196 19.5761
-22.7981 -46.8929 19.4062
-22.5301 -45.6704 19.2317
-20.7262 -42.3732 21.7966
-20.2763 -41.7473 22.6812
-19.8476 -41.1143 23.4902
-19.4013 -40.4247 24.2881
-18.9323 -39.7211 25.1444
-21.2103 -43.0513 20.8826
-18.4484 -39.0165 26.0324
-17.9463 -38.3141 26.9351
-21.7115 -43.7498 19.9674
-19.4986 -47.6698 32.5629
-19.2821 -48.9415 32.2595
-19.793 -43.1238 34.2515
-19.76 -46.3757 32.8363
-19.3366 -37.8792 19.0431
-18.6464 -36.4219 9.69184
-16.6945 -30.2406 -5.15908
-15.5965 -25.1435 -11.6668
-14.4509 -22.2071 -12.9906
-15.0367 -23.283 -12.7264
-13.8361 -21.2515 -13.2707
-8.89099 -17.9034 -16.0186
-9.39011 -29.6462 32.6382
-12.3519 -30.8526 34.949
-11.9931 -30.2872 34.3612
-10.5866 -29.6822 33.061
-14.0418 -32.2501 35.3833
-14.6669 -33.2052 35.3801
-14.8593 -34.2567 35.0345
-15.093 -35.1019 34.4259
-15.4005 -35.8443 33.654
-15.7792 -36.5338 32.7974
-8.03287 -29.6164 30.9875
-7.65277 -17.9387 -20.229
-2.76669 -17.8245 -9.65306
-2.95289 -16.0445 -12.4227
-2.36036 -16.3214 -23.2249
-2.63315 -15.6695 -22.7575
-2.84193 -15.2469 -21.8609
-2.48918 -16.8951 -24.1745
-6.76615 -21.6086 -4.14436
-4.64322 -19.0381 -7.15763
-10.6628 -29.1205 22.2912
-9.78892 -29.181 26.8497
-0.119296 -25.204 -33.3055
-0.270875 -25.9377 -34.333
5.52464 -26.7689 -35.3095
4.86596 -25.766 -35.2125
4.08715 -23.5574 -33.2412
3.68665 -23.2738 -32.4268
4.21338 -24.0825 -34.1544
2.9924 -23.2211 -31.8171
2.10129 -23.242 -31.4696
1.8322 -24.0015 -31.6406
1.00549 -24.2211 -31.9077
-26.2646 -73.6109 25.3002
-27.1606 -72.8938 24.739
-28.0174 -72.1604 24.1388
-28.8304 -71.4127 23.4975
-29.598 -70.6535 22.8153
-25.3344 -74.312 25.8256
-30.3205 -69.8878 22.0945
-24.3742 -74.9962 26.3173
-30.9283 -67.8726 21.4469
-23.5851 -74.4866 27.2016
-22.7833 -73.97 28.068
-21.9666 -73.445 28.9118
-21.1308 -72.9092 29.725
-20.2695 -72.3612 30.4981
-19.3753 -71.8024 31.2221
-18.4362 -71.2442 31.8876
-31.9634 -65.1149 19.7935
-26.948 -51.6761 13.2278
-26.6952 -52.2052 14.3272
-25.4584 -45.5545 5.87336
-26.2116 -47.0715 7.10319
-26.2675 -47.4931 8.17089
-26.8203 -49.0098 9.57749
-26.768 -49.4899 10.7212
-26.6697 -49.9849 11.8583
-26.3838 -52.7431 15.4101
-26.0145 -53.2898 16.4751
-25.5901 -53.8446 17.5216
-25.1151 -54.4053 18.5494
-24.5956 -54.9697 19.5586
-30.1139 -46.4671 -2.12226
-33.8636 -52.7579 2.73684
-31.4822 -48.4345 0.214276
-17.7233 -33.6119 -36.8502
-17.7892 -32.5077 -36.9961
-17.7879 -31.5475 -36.8466
-17.9524 -30.6476 -36.4135
-18.2533 -29.756 -35.7598
-18.456 -29.2391 -33.8415
-18.9464 -28.8173 -31.8181
0.47076 -27.8972 -36.698
0.337418 -27.4736 -35.6801
0.80675 -28.1393 -37.6412
1.4222 -28.2683 -38.2835
2.28718 -28.3534 -38.4886
3.37172 -28.4499 -38.2004
4.84797 -28.3028 -37.0187
-20.7957 -37.3861 -5.42899
-18.3764 -30.581 -19.3369
-18.2867 -31.0479 -18.1673
-18.2388 -31.5248 -16.9986
-18.2376 -32.0101 -15.833
-18.2892 -32.5016 -14.6728
-18.5053 -30.1261 -20.5071
-18.3966 -32.9944 -13.5201
-18.6699 -29.6872 -21.6793
-18.558 -33.4844 -12.3755
-18.7668 -33.9684 -11.238
-19.0156 -34.4443 -10.1053
-19.2967 -34.9108 -8.97429
-19.6004 -35.3675 -7.84152
-18.8607 -29.2677 -22.8568
-19.9132 -35.8164 -6.70416
-21.114 -37.8116 -4.27432
-19.0627 -28.8692 -24.0426
-21.4125 -38.2375 -3.1124
-19.26 -28.4926 -25.2369
-21.6866 -38.6672 -1.94381
-19.4389 -28.138 -26.4376
-21.9347 -39.102 -0.769358
-22.8011 -40.6026 0.572384
-19.5893 -27.8045 -27.6413
-23.0103 -41.0384 1.76188
-23.198 -41.4793 2.95654
-19.7053 -27.4889 -28.8445
-23.3669 -41.9243 4.15803
-24.8156 -44.4942 5.72771
-24.1687 -43.4302 5.55331
-22.2245 -44.4529 19.0537
-19.1315 -50.1902 31.9661
-17.3053 -38.3435 35.7384
-17.9023 -38.7856 35.9126
-16.36 -37.2176 34.8371
-16.9466 -37.3897 35.5451
-15.981 -36.9034 33.8689
-18.6375 -39.3222 35.7444
-19.3737 -41.1953 35.2079
-19.915 -41.8162 34.3521
-20.0161 -45.0688 33.0644
-20.2253 -43.7572 33.2423
-18.7602 -37.5142 21.2294
-19.3615 -38.2463 20.2605
-19.3248 -37.3297 13.2618
-19.1056 -37.039 12.0593
-18.8784 -36.7392 10.8679
-19.5273 -37.6202 14.4692
-18.8365 -36.2255 6.39729
-19.0243 -36.6199 7.56867
-19.2275 -36.9897 8.74394
-18.6671 -35.8053 5.2288
-18.5134 -35.3607 4.06396
-18.3709 -34.8934 2.90422
-18.2369 -34.4049 1.75105
-19.7003 -37.9214 15.6765
-18.1099 -33.8976 0.605329
-17.9847 -33.3774 -0.533473
-19.8311 -38.2439 16.8799
-19.9119 -38.5953 18.0783
-17.8529 -32.8522 -1.66703
-17.7084 -32.3268 -2.79663
-17.5524 -31.7995 -3.92212
-17.393 -31.2644 -5.04288
-18.7378 -37.8629 22.4639
-16.5708 -29.6624 -6.26175
-16.4583 -29.0678 -7.36182
-16.3643 -28.458 -8.46147
-18.6726 -38.2147 23.6881
-16.2996 -27.8277 -9.5665
-18.5768 -38.5943 24.8792
-16.2749 -27.1568 -10.698
-16.3006 -26.363 -11.9418
-15.6301 -24.3926 -12.5965
-10.0063 -18.0889 -15.5691
-12.1479 -19.0296 -14.8694
-11.1033 -18.4625 -15.2005
-13.0955 -19.7649 -14.5649
-13.9221 -20.6272 -14.2935
-11.7628 -29.8694 33.4616
-14.0543 -31.5664 35.1115
-13.2576 -31.0298 34.9736
-9.18236 -29.4505 31.4585
-8.81992 -17.7964 -17.2058
-8.77826 -17.7834 -18.4002
-8.75412 -17.844 -19.6185
-3.18797 -16.4219 -11.2527
-3.48315 -16.9099 -10.1311
-3.50602 -14.838 -17.8489
-3.52725 -14.9085 -16.6191
-3.56382 -15.0227 -15.4143
-3.65188 -15.1798 -14.2222
-3.49437 -14.8122 -19.0843
-3.80024 -15.3959 -13.0265
-3.50074 -14.8322 -20.2968
-3.50287 -14.9132 -21.4519
-4.51145 -18.2407 -23.3559
-5.516 -18.2628 -22.7095
-3.59981 -18.0811 -24.0314
-2.86687 -17.7529 -24.7546
-6.56703 -18.1949 -22.0821
-7.64313 -18.0817 -21.4662
-8.14224 -22.5556 -2.87946
-8.39737 -23.3196 -1.9288
-7.89162 -21.7442 -3.78862
-6.48494 -20.7588 -5.00567
-9.84117 -26.5334 3.43305
-6.17433 -19.8845 -5.8544
-5.83682 -18.9981 -6.71624
-4.24532 -18.2341 -8.08762
-10.6843 -28.1326 8.08647
-10.8809 -28.3851 9.29889
-11.0745 -28.5875 10.5255
-3.84345 -17.5158 -9.07546
-11.2644 -28.7497 11.7636
-11.4508 -28.8809 13.0122
-11.635 -28.985 14.2739
-11.8187 -29.0611 15.5586
-12.0078 -29.1077 16.8845
-11.3447 -29.1129 19.0674
-12.2598 -29.126 18.2122
-11.5613 -29.1014 20.293
-11.7001 -29.0985 21.5462
-10.7389 -29.1093 23.5556
-10.809 -29.1061 24.827
-10.881 -29.1132 26.1037
-9.88788 -29.1895 28.1483
-9.00384 -29.3582 30.2187
5.20434 -27.5512 -36.1976
0.00443143 -24.3491 -32.4121
-0.366355 -26.4773 -35.404
4.13405 -24.7808 -35.089
-19.0221 -56.4455 31.3627
-19.0521 -57.7104 31.3723
-18.9971 -55.1826 31.3769
-19.0852 -58.9762 31.4008
-19.1236 -60.2425 31.4504
-19.1697 -61.5096 31.5205
-18.9847 -53.9239 31.4303
-18.995 -52.6722 31.5413
-19.2214 -62.7782 31.6029
-19.0398 -51.4291 31.7207
-19.2723 -64.0502 31.6834
-19.3156 -65.327 31.7451
-19.3472 -66.6129 31.7704
-19.369 -67.9138 31.7417
-19.3917 -69.226 31.642
-30.2786 -68.6393 22.2361
-31.4011 -65.8673 20.662
-30.8121 -66.626 21.5072
-26.5203 -50.4913 12.9851
-25.6107 -46.072 7.03169
-26.2617 -47.8946 9.28501
-27.8048 -43.7135 -6.67013
-27.3521 -43.3061 -7.77685
-26.8992 -42.8964 -8.88295
-26.4486 -42.4837 -9.98883
-28.2541 -44.1197 -5.56198
-26.0009 -42.0676 -11.0941
-25.5552 -41.6494 -12.1983
-25.1117 -41.2297 -13.3016
-24.6727 -40.8083 -14.4051
-24.2428 -40.3848 -15.5101
-23.8273 -39.9578 -16.6177
-23.4306 -39.5274 -17.7287
-28.6979 -44.5247 -4.45159
-23.0534 -39.0942 -18.8429
-22.6944 -38.66 -19.96
-29.133 -44.9296 -3.33819
-22.3528 -38.2273 -21.0801
-22.0312 -37.7975 -22.2042
-21.735 -37.373 -23.3337
-21.4664 -36.9569 -24.47
-21.221 -36.5528 -25.6145
-20.9891 -36.1648 -26.7707
-20.7604 -35.796 -27.9496
-20.5247 -35.4522 -29.1743
-20.252 -35.1982 -30.4267
-19.9612 -34.9989 -31.6514
-19.6787 -34.7634 -32.8409
-19.3697 -34.5003 -34.0086
-18.9877 -34.2061 -35.1324
-18.4634 -33.8733 -36.1395
-29.5534 -45.3376 -2.22074
-34.6812 -54.3815 3.9752
-34.9204 -54.8711 5.11577
-35.1006 -55.3814 6.25972
-35.2201 -55.9127 7.40453
-35.2759 -56.4654 8.54653
-35.2612 -57.0416 9.68048
-35.1701 -57.6429 10.8003
-35.0029 -58.2686 11.9002
-34.1669 -53.2258 3.86642
-32.9755 -51.157 1.51634
-33.3211 -51.6083 2.63867
-32.4212 -50.0093 1.42551
-31.854 -48.8661 1.3377
-30.5231 -46.8796 -1.00161
-30.9106 -47.2996 0.122919
-18.6036 -28.9263 -34.9546
-18.9628 -28.485 -32.9717
4.08127 -28.0715 -37.5784
-19.4115 -28.0236 -30.936
-20.2227 -36.2602 -5.56062
-22.1578 -39.5421 0.41014
-19.7842 -27.1859 -30.0432
-23.5191 -42.3741 5.3687
-34.4606 -59.5852 14.0215
-34.0993 -60.2717 15.038
-33.6918 -60.9736 16.0273
-34.7643 -58.9168 12.9752
-33.2488 -61.6874 16.9936
-32.778 -62.4103 17.9395
-32.2828 -63.1418 18.8656
-31.7638 -63.8816 19.7716
-24.4188 -53.7336 19.3838
-24.2369 -52.4988 19.2131
-24.0457 -51.2652 19.0431
-23.84 -50.0337 18.8713
-23.613 -48.8058 18.6957
-23.3583 -47.583 18.5155
-23.0714 -46.3659 18.3304
-22.7492 -45.1552 18.1411
-20.3734 -41.1925 21.7124
-20.0017 -40.7807 22.5768
-20.8605 -41.8367 20.7472
-19.5873 -40.0647 23.162
-19.0884 -39.3145 23.9933
-21.3659 -42.5338 19.8029
-21.8756 -43.2427 18.8727
-20.1119 -48.2333 31.5949
-19.9764 -49.4968 31.3633
-20.2886 -46.957 31.8267
-19.3407 -39.9008 35.2026
-20.3644 -42.4455 33.364
-20.4796 -45.6679 32.0352
-19.941 -38.9795 19.2767
-19.4385 -37.3381 9.92598
-17.2393 -30.7164 -6.15918
-16.094 -25.3476 -12.5635
-15.7631 -23.7376 -13.601
-15.2252 -22.6322 -13.7961
-14.6233 -21.5869 -14.0375
-9.8937 -17.887 -16.7113
-10.3685 -29.4322 31.9168
-12.8847 -30.5673 34.5991
-12.86 -30.2163 33.8646
-11.5584 -29.5683 32.3575
-14.9523 -32.3579 35.2847
-15.8 -33.3092 35.4587
-15.6976 -34.2504 35.541
-15.7157 -35.2102 35.2246
-15.8077 -36.0955 34.6332
-8.73516 -17.9651 -20.8556
-3.99938 -15.6989 -11.8395
-2.66428 -16.0496 -24.0238
-3.3112 -15.4244 -23.6992
-3.42926 -15.1152 -22.5536
-2.58914 -16.4796 -25.2238
-2.43845 -17.3289 -25.5809
-7.63068 -20.8914 -4.65948
-5.46842 -18.1158 -7.629
-11.8062 -29.1026 22.8124
-10.9672 -29.1335 27.3831
-10.0256 -29.2162 29.4346
-1.0152 -24.3205 -33.0451
-1.1119 -24.9962 -34.0462
-1.13496 -25.5304 -35.0995
4.60859 -26.5591 -36.1144
3.93187 -25.5742 -36.0061
3.37139 -23.1397 -33.9714
3.21368 -22.6437 -33.0358
2.80966 -22.3769 -32.1908
3.33931 -23.8128 -34.9232
2.15371 -22.3197 -31.5374
1.15091 -23.3239 -31.4219
0.157236 -23.4745 -31.6708
-19.4065 -70.5288 31.4657
-26.3854 -72.3911 25.6248
-25.4832 -73.1048 26.1858
-27.2507 -71.6627 25.0261
-28.0745 -70.9203 24.3876
-28.8537 -70.1666 23.7085
-29.5879 -69.405 22.9907
-24.5485 -73.8032 26.711
-30.1911 -67.3886 22.3252
-23.7489 -73.2862 27.5794
-22.9345 -72.7604 28.4274
-22.1012 -72.2235 29.248
-21.2423 -71.6726 30.0324
-20.3491 -71.107 30.7731
-31.2217 -64.6289 20.6576
-26.3155 -51.0079 14.0985
-26.0523 -51.5346 15.1954
-24.9633 -45.0095 6.96354
-25.7881 -46.6095 7.91564
-25.7118 -46.8131 8.9254
-26.2346 -48.3442 10.4371
-26.1749 -48.8211 11.5902
-26.0708 -49.3129 12.7332
-25.7288 -52.0718 16.2735
-25.3457 -52.6189 17.3311
-24.9069 -53.1739 18.3676
-29.9531 -45.7512 -1.09834
-33.6279 -52.0772 3.7624
-31.2743 -47.7292 1.25015
-18.6 -31.4681 -36.9986
-18.8136 -32.5192 -36.6034
-18.4464 -30.7182 -36.9152
-18.8284 -29.6627 -36.6716
-18.939 -28.6598 -35.9828
-19.0196 -28.1471 -34.1009
-19.4328 -27.7073 -32.1017
0.0977117 -27.0968 -37.3613
-0.253533 -26.8611 -36.4348
0.703158 -27.2123 -38.0368
1.53697 -27.2709 -38.3104
2.50782 -27.3187 -38.138
3.45013 -27.313 -37.6199
4.32049 -27.3601 -36.9437
-20.5201 -36.7018 -4.41054
-18.2873 -29.7932 -18.3579
-18.1734 -30.2648 -17.1799
-18.4431 -29.331 -19.5326
-18.1062 -30.7478 -16.0012
-18.0924 -31.2424 -14.8274
-18.1368 -31.7438 -13.663
-18.6382 -28.8802 -20.7062
-18.2395 -32.2462 -12.5095
-18.8648 -28.4455 -21.8843
-18.3949 -32.7458 -11.3659
-18.5936 -33.2401 -10.2296
-18.8275 -33.7268 -9.09718
-19.0886 -34.2042 -7.96499
-19.3664 -34.6728 -6.82988
-19.1081 -28.0305 -23.0724
-19.6481 -35.1348 -5.68988
-20.7996 -37.1435 -3.25407
-19.3508 -27.6378 -24.2735
-21.0573 -37.5879 -2.09158
-19.5767 -27.2695 -25.4854
-21.2914 -38.036 -0.923526
-19.7732 -26.9263 -26.7031
-21.503 -38.4876 0.249606
-22.3586 -39.9862 1.59422
-19.9314 -26.6063 -27.9222
-22.5404 -40.4327 2.78322
-22.7073 -40.8799 3.97842
-20.0467 -26.3061 -29.1395
-22.8614 -41.3271 5.1816
-24.3046 -43.9071 6.78751
-23.6556 -42.8317 6.59209
-22.389 -43.9523 17.9476
-19.8904 -50.7523 31.1582
-17.6838 -37.6237 35.8251
-18.4706 -38.0761 35.6661
-16.4141 -36.2562 35.3827
-19.2102 -38.6123 35.1464
-19.9329 -40.5088 34.388
-20.4165 -41.1333 33.4263
-20.6518 -44.3694 32.2063
-20.7784 -43.0654 32.3316
-19.3333 -38.6366 21.5087
-19.9208 -39.4068 20.4982
-20.056 -38.3024 13.5197
-19.8586 -37.9882 12.316
-19.6504 -37.6692 11.117
-20.2306 -38.6214 14.7236
-19.6281 -37.1645 6.59778
-19.809 -37.5607 7.77877
-19.4597 -36.7459 5.42225
-19.9983 -37.9371 8.96592
-19.3032 -36.3052 4.25171
-19.1551 -35.8445 3.08603
-19.0119 -35.3661 1.9257
-18.8715 -34.8723 0.771424
-20.3687 -38.9558 15.9234
-18.7309 -34.3666 -0.376678
-18.584 -33.8547 -1.51946
-20.4586 -39.3156 17.1158
-20.4951 -39.7073 18.2995
-18.4234 -33.3426 -2.65816
-18.2466 -32.8318 -3.79328
-18.0592 -32.3187 -4.92433
-17.8724 -31.7978 -6.05105
-19.2326 -38.9819 22.7752
-17.0985 -30.1547 -7.27252
-16.9768 -29.5807 -8.38543
-16.8836 -28.9941 -9.50261
-16.8307 -28.3916 -10.6355
-16.8353 -27.7691 -11.8084
-16.9343 -27.1912 -13.0251
-16.5899 -25.9694 -13.2417
-16.2269 -24.8481 -13.4523
-10.971 -18.1345 -16.3801
-13.1008 -19.2312 -15.7287
-12.0737 -18.5835 -16.0865
-13.9907 -20.0357 -15.4038
-14.7492 -20.9657 -15.1175
-12.7211 -29.8646 32.7935
-13.8614 -30.8313 34.3831
-14.9859 -31.6051 34.6565
-10.187 -29.2874 30.6949
-9.84099 -17.8077 -17.8301
-9.84695 -17.8183 -19.0064
-9.83523 -17.8922 -20.2426
-4.2565 -16.1135 -10.6896
-4.59044 -16.6515 -9.6054
-4.60783 -14.5433 -17.1825
-4.57552 -14.6183 -15.9593
-4.55113 -14.5277 -18.46
-4.56704 -14.7324 -14.8191
-4.69318 -14.8824 -13.6651
-4.49244 -14.5577 -19.7073
-4.86843 -15.1134 -12.4815
-4.43703 -14.6359 -20.9253
-4.35876 -14.7795 -22.118
-5.51609 -18.4904 -23.9399
-4.4982 -18.5056 -24.5834
-6.56794 -18.4003 -23.3168
-3.55402 -18.4042 -25.2652
-2.7601 -18.1685 -26.0163
-7.63783 -18.2718 -22.7051
-8.7209 -18.1348 -22.0994
-9.02135 -21.9611 -3.47223
-9.25674 -22.7582 -2.55
-9.50328 -23.5004 -1.59969
-8.78081 -21.1169 -4.35749
-7.35206 -20.0068 -5.50434
-10.7985 -26.212 2.73286
-11.0127 -26.7481 3.8534
-7.05597 -19.1016 -6.34531
-6.74708 -18.1781 -7.22393
-5.02739 -17.3148 -8.5933
-11.8288 -28.2924 8.53587
-12.0285 -28.5238 9.76036
-12.2275 -28.707 10.9998
-12.4257 -28.8552 12.2507
-12.6244 -28.9769 13.5122
-12.8263 -29.0743 14.7867
-13.0353 -29.1463 16.079
-13.2587 -29.1964 17.3842
-12.5232 -29.1336 19.5005
-12.7118 -29.1475 20.7746
-12.8547 -29.1697 22.0495
-11.8923 -29.1142 24.0817
-11.9666 -29.1338 25.3511
-12.0419 -29.1655 26.619
-11.078 -29.1729 28.6582
-0.878299 -23.5531 -32.1325
-1.00318 -25.8992 -36.1387
3.18538 -24.5925 -35.8559
1.30294 -22.4047 -31.1621
-19.9258 -57.0574 30.825
-19.8871 -55.7914 30.8181
-19.9691 -58.3242 30.8493
-19.8564 -54.5268 30.8361
-20.0179 -59.5915 30.8914
-20.0749 -60.8592 30.9534
-20.1397 -62.1275 31.0303
-19.8406 -53.2647 30.8926
-19.8486 -52.0067 30.9988
-20.2071 -63.3979 31.1095
-20.2696 -64.6721 31.1747
-20.3204 -65.9526 31.2086
-20.3562 -67.24 31.1953
-20.3772 -68.5342 31.122
-20.3796 -69.8276 30.9816
-29.5317 -68.1522 23.1112
-30.6555 -65.3821 21.5232
-30.0609 -66.139 22.3654
-25.9145 -49.8159 13.8623
-25.1592 -45.6856 8.28829
-25.6875 -47.209 10.1151
-27.7207 -42.9839 -5.66626
-27.2802 -42.5744 -6.77529
-26.8356 -42.1636 -7.88311
-26.3904 -41.7507 -8.99052
-25.9465 -41.3349 -10.0973
-28.1539 -43.3931 -4.55482
-25.5039 -40.9163 -11.2029
-25.063 -40.4955 -12.3074
-24.6269 -40.0725 -13.4119
-24.201 -39.6462 -14.5184
-23.7923 -39.2156 -15.6287
-23.4079 -38.7793 -16.7441
-23.0508 -38.3381 -17.865
-28.577 -43.8026 -3.44004
-22.7203 -37.8945 -18.9911
-22.4144 -37.4511 -20.122
-28.9854 -44.2143 -2.32118
-22.1338 -37.0102 -21.258
-21.8826 -36.5752 -22.4003
-21.6655 -36.149 -23.5499
-21.4809 -35.735 -24.7073
-21.3197 -35.3363 -25.8736
-21.1711 -34.9534 -27.0555
-21.0279 -34.5766 -28.2783
-20.8851 -34.1582 -29.6454
-20.559 -34.1669 -30.9717
-20.3303 -33.9819 -32.162
-20.0966 -33.7314 -33.3533
-19.812 -33.4337 -34.5285
-19.4198 -33.0574 -35.6385
-29.3738 -44.6307 -1.19743
-34.4181 -53.7136 5.0002
-34.6115 -54.222 6.13741
-34.7442 -54.7513 7.27632
-34.8146 -55.3016 8.41396
-34.818 -55.8739 9.54581
-34.7492 -56.4696 10.6663
-34.6062 -57.0892 11.7697
-34.3924 -57.7309 12.8514
-33.8879 -52.5654 4.88792
-32.7649 -50.4602 2.54682
-33.0716 -50.9306 3.66659
-32.1948 -49.3138 2.46142
-31.609 -48.1727 2.37919
-30.3297 -46.172 0.0288556
-30.6825 -46.6012 1.15997
-19.1801 -27.8165 -35.1886
-19.4506 -27.3795 -33.2388
-19.8266 -26.8886 -31.2301
-19.9218 -35.5939 -4.54431
-21.6948 -38.9409 1.4275
-20.1171 -26.021 -30.351
-23.0035 -41.7749 6.39471
-33.7763 -59.0714 14.9345
-34.1136 -58.3921 13.9071
-33.3893 -59.7664 15.9344
-32.9643 -60.4741 16.9107
-32.5101 -61.1917 17.8665
-32.0317 -61.9175 18.8033
-31.5306 -62.6517 19.7211
-31.0077 -63.3933 20.6203
-24.6894 -51.9437 18.187
-24.4577 -50.7156 18.0042
-24.2066 -49.491 17.8178
-23.9308 -48.2718 17.6269
-23.6249 -47.0591 17.4311
-23.285 -45.8545 17.2303
-22.9089 -44.6592 17.0248
-20.4266 -40.6208 20.6491
-19.8563 -39.9302 21.8368
-20.9567 -41.3275 19.6444
-21.4747 -42.0434 18.6893
-21.9859 -42.7603 17.7498
-20.7585 -48.8062 30.6787
-20.8628 -47.5352 30.8582
-20.6879 -50.0719 30.5126
-20.9868 -46.2564 31.0316
-17.2617 -36.3097 35.7332
-19.8442 -39.2021 34.3633
-20.839 -41.7583 32.4057
-21.1079 -44.9696 31.1823
-20.4805 -40.1368 19.4771
-20.1911 -38.2974 10.1597
-17.6968 -31.2657 -7.17432
-16.382 -24.2344 -14.4696
-15.9276 -23.0915 -14.6472
-15.3885 -21.9926 -14.8644
-10.7189 -17.9379 -17.3405
-11.3755 -29.3688 31.1597
-13.835 -30.3415 33.2455
-12.5528 -29.6049 31.6109
-15.9241 -32.4832 34.9202
-16.5872 -34.3042 35.6295
-16.4838 -35.2533 35.679
-9.8155 -18.0229 -21.4945
-5.08693 -15.453 -11.3154
-3.18972 -15.7779 -24.9011
-4.24174 -15.0004 -23.3059
-2.2344 -17.8164 -26.8546
-2.41585 -16.9127 -26.4658
-8.52965 -20.2353 -5.20969
-6.42772 -17.1814 -8.24593
-13.4899 -29.2338 18.6863
-12.9657 -29.2007 23.3234
-12.1333 -29.2174 27.8833
-11.2152 -29.2449 29.9202
-1.97836 -24.1402 -33.7435
-1.89947 -23.5142 -32.7287
-1.96597 -24.6442 -34.7954
-1.80333 -24.9932 -35.8353
3.68004 -26.4166 -36.871
2.96582 -25.4345 -36.7426
2.49198 -22.2261 -33.7306
2.49304 -22.8693 -34.7083
2.32059 -21.7596 -32.7635
1.9273 -21.5145 -31.8798
2.38006 -23.6261 -35.6605
1.29276 -21.4838 -31.1801
0.32962 -22.566 -31.1031
-0.709686 -22.7221 -31.3313
-24.6863 -72.5895 27.0538
-25.5924 -71.8786 26.4915
-26.4635 -71.1543 25.8922
-27.2956 -70.4175 25.2545
-28.0848 -69.6698 24.5775
-28.83 -68.9132 23.8624
-29.4312 -66.8984 23.1794
-23.8745 -72.0645 27.903
-23.0451 -71.5281 28.7284
-22.192 -70.9779 29.5212
-21.307 -70.4116 30.2737
-30.4626 -64.1408 21.5009
-25.7005 -50.3304 14.9745
-25.4252 -50.8569 16.0674
-24.4326 -44.4211 8.05552
-25.1242 -46.0722 9.72565
-25.6596 -47.664 11.301
-25.5988 -48.1412 12.4685
-25.4904 -48.6308 13.6172
-25.0874 -51.3953 17.1385
-29.7386 -45.0539 -0.0684529
-33.3367 -51.4216 4.78368
-31.0077 -47.0412 2.29482
-19.2118 -30.3755 -37.0341
-19.5601 -31.1719 -36.7785
-19.9448 -31.8602 -36.0363
-19.5217 -28.3823 -36.7999
-19.7575 -29.2288 -37.1065
-19.5123 -27.5059 -36.1864
-19.5074 -27.0286 -34.3372
-19.8391 -26.5911 -32.3888
-0.645489 -26.1123 -37.0691
-0.0400034 -26.2059 -37.7615
0.783128 -26.2419 -38.0826
1.73987 -26.2785 -37.9808
2.72563 -26.3333 -37.5302
-20.1796 -36.0528 -3.39325
-18.3076 -28.5473 -18.561
-18.1295 -29.0087 -17.3785
-17.9942 -29.4794 -16.1837
-18.5239 -28.0872 -19.7347
-17.9126 -29.9741 -14.9879
-17.8919 -30.4854 -13.8052
-17.9333 -31.001 -12.6393
-18.7748 -27.6357 -20.9103
-18.0328 -31.5173 -11.4883
-19.048 -27.1993 -22.0975
-18.1805 -32.031 -10.3482
-18.3664 -32.5393 -9.21483
-18.5822 -33.0394 -8.08377
-18.82 -33.5303 -6.95148
-19.0691 -34.0127 -5.81556
-19.3265 -26.7829 -23.3033
-19.3167 -34.4902 -4.67491
-20.4178 -36.5136 -2.2369
-19.5932 -26.3925 -24.527
-20.6355 -36.9767 -1.07541
-19.8325 -26.0317 -25.7602
-20.8339 -37.4412 0.0909931
-20.0322 -25.6996 -26.9954
-21.016 -37.9052 1.26219
-21.8708 -39.3938 2.61027
-20.1847 -25.3936 -28.2298
-22.035 -39.8445 3.79872
-22.1909 -40.2908 4.99428
-20.286 -25.1106 -29.4627
-22.3394 -40.7325 6.19825
-23.7785 -43.3003 7.83342
-23.134 -42.2243 7.61977
-22.4949 -43.4749 16.8151
-20.6534 -51.3353 30.3764
-18.1884 -36.8314 35.5687
-18.973 -37.3392 35.0521
-19.646 -37.9035 34.2871
-20.3685 -39.8207 33.429
-20.8164 -40.449 32.4264
-21.2025 -43.6762 31.2986
-21.25 -42.3781 31.3732
-20.7403 -39.3228 13.7664
-20.5699 -38.984 12.5628
-20.3835 -38.6448 11.3594
-20.8814 -39.6709 14.9659
-20.2195 -37.7111 5.61512
-20.3851 -38.1299 6.79962
-20.557 -38.5313 7.99067
-20.0616 -37.2738 4.43693
-20.7318 -38.9182 9.18815
-19.9092 -36.8193 3.2644
-19.7584 -36.3503 2.09707
-19.606 -35.8692 0.935052
-19.4495 -35.3786 -0.221532
-20.9794 -40.0382 16.1572
-19.2848 -34.8827 -1.37293
-19.1064 -34.3855 -2.5198
-21.0249 -40.4333 17.3368
-21.0155 -40.8615 18.5009
-18.9103 -33.8904 -3.66275
-18.6983 -33.3963 -4.80173
-18.4797 -32.8987 -5.93634
-18.2669 -32.393 -7.06693
-17.5403 -30.7226 -8.29629
-17.4104 -30.1698 -9.42062
-17.317 -29.6088 -10.5537
-17.2732 -29.042 -11.7063
-17.2953 -28.4796 -12.8886
-17.0914 -26.6216 -14.221
-16.7606 -25.4029 -14.3232
-11.8582 -18.2212 -17.4757
-13.0693 -18.7978 -16.9896
-14.0404 -19.5187 -16.5886
-14.8581 -20.389 -16.2489
-15.5419 -21.3794 -15.9594
-13.7011 -29.9996 32.0564
-14.9157 -30.9966 33.6626
-16.7426 -33.4657 35.1568
-15.931 -31.7984 34.0101
-10.8876 -17.9156 -18.3605
-10.9274 -17.9167 -19.6128
-10.9165 -17.9813 -20.8841
-5.36402 -15.9152 -10.2101
-5.74301 -16.4889 -9.20339
-5.85517 -14.2877 -16.3603
-5.39524 -14.4361 -15.3157
-5.72971 -14.286 -17.8163
-5.61132 -14.3303 -19.1168
-5.58113 -14.5023 -14.3211
-5.77186 -14.6635 -13.1636
-5.50921 -14.416 -20.3698
-5.97321 -14.9336 -11.992
-5.40896 -14.5463 -21.6026
-4.09647 -15.2858 -24.5085
-3.02219 -16.1647 -26.1064
-5.29255 -14.7286 -22.8274
-5.50071 -18.7914 -25.1575
-4.46069 -18.8655 -25.7924
-6.56158 -18.6611 -24.5444
-7.63211 -18.5042 -23.9412
-3.46851 -18.8513 -26.4759
-2.56459 -18.7305 -27.2583
-8.71046 -18.3415 -23.3433
-9.79799 -18.1957 -22.7476
-10.1366 -22.253 -3.1904
-10.3459 -23.0262 -2.26062
-9.9201 -21.4261 -4.09227
-10.5556 -23.7268 -1.33551
-9.69423 -20.557 -4.96008
-11.7819 -25.9442 2.02202
-8.26858 -19.3282 -6.04244
-11.9724 -26.5201 3.12598
-8.00491 -18.409 -6.87969
-7.76246 -17.4903 -7.7532
-12.7666 -28.2579 7.74734
-12.9679 -28.5298 8.96555
-13.171 -28.7427 10.2043
-13.3749 -28.9123 11.458
-13.5806 -29.0523 12.7221
-13.7902 -29.1701 13.9945
-14.0056 -29.2663 15.2767
-14.2271 -29.3427 16.5689
-14.4502 -29.4067 17.8669
-13.7004 -29.2697 19.9789
-13.8761 -29.3131 21.2659
-14.0188 -29.3679 22.5497
-13.0483 -29.2378 24.5924
-13.1123 -29.2811 25.853
-13.1812 -29.3418 27.1053
-12.2497 -29.2996 29.1404
-1.76515 -22.7998 -31.7746
-1.42841 -25.1824 -36.7707
2.19635 -24.4524 -36.5621
0.447473 -21.6157 -30.7621
-20.7508 -56.3963 30.2091
-20.8038 -57.6629 30.2334
-20.7046 -55.1297 30.2031
-20.8633 -58.9299 30.2739
-20.6691 -53.8637 30.2235
-20.9313 -60.1974 30.3321
-21.0083 -61.4655 30.4061
-21.0907 -62.7344 30.4863
-20.6497 -52.5987 30.2795
-21.1708 -64.0056 30.5578
-21.2402 -65.2816 30.6033
-21.2925 -66.5629 30.6075
-21.3238 -67.8481 30.5583
-21.3309 -69.1335 30.4484
-28.7612 -67.6571 23.9613
-29.8919 -64.8926 22.3616
-29.2899 -65.6468 23.1989
-25.3261 -49.1323 14.7468
-24.5184 -44.9146 9.3644
-25.1222 -46.5125 10.9836
-27.185 -41.8507 -5.77176
-26.7547 -41.4365 -6.88196
-27.6066 -42.2648 -4.65924
-26.3194 -41.0217 -7.9911
-25.8823 -40.605 -9.0996
-25.4449 -40.1859 -10.207
-28.0164 -42.6797 -3.54332
-25.0084 -39.7642 -11.313
-24.576 -39.3396 -12.4187
-24.1535 -38.9111 -13.5264
-23.7493 -38.4771 -14.6384
-23.3725 -38.0362 -15.7568
-23.0295 -37.5887 -16.8825
-22.7218 -37.1368 -18.0157
-28.4111 -43.0968 -2.42333
-22.4477 -36.6834 -19.1559
-22.2061 -36.2321 -20.303
-28.7865 -43.5178 -1.29872
-21.9991 -35.7862 -21.4571
-21.8305 -35.3498 -22.6188
-21.7007 -34.9261 -23.7879
-21.6037 -34.5185 -24.9639
-21.5283 -34.128 -26.1474
-21.4659 -33.7491 -27.3431
-21.4187 -33.3608 -28.5558
-21.0417 -33.4085 -30.5032
-21.4266 -32.9195 -29.6958
-20.918 -33.2273 -31.4906
-20.765 -32.9814 -32.6484
-20.5706 -32.6926 -33.8367
-20.3071 -32.3387 -34.9943
-29.1387 -43.9446 -0.168972
-34.094 -53.0733 6.01596
-34.2404 -53.6011 7.14645
-34.3246 -54.149 8.27752
-34.3446 -54.7175 9.40531
-34.296 -55.3077 10.5245
-34.1761 -55.9205 11.6296
-33.9867 -56.5551 12.7157
-33.733 -57.2087 13.7791
-33.553 -51.9324 5.89957
-32.5 -49.7832 3.58263
-32.7673 -50.2779 4.69608
-31.9096 -48.637 3.50872
-31.2995 -47.498 3.43461
-30.0789 -45.4842 1.06545
-30.3923 -45.9231 2.20441
-19.6614 -26.6684 -35.4007
-19.8434 -26.2845 -33.486
-20.1429 -25.7498 -31.5468
-19.5516 -34.9668 -3.52953
-21.1854 -38.366 2.43826
-20.3343 -24.8502 -30.6923
-22.4801 -41.1702 7.41151
-33.057 -58.5661 15.8273
-33.4209 -57.8795 14.8166
-32.6515 -59.2658 16.8134
-32.2142 -59.9764 17.7783
-31.7519 -60.696 18.7239
-31.268 -61.4239 19.6507
-30.7635 -62.1603 20.5589
-30.2381 -62.903 21.4491
-24.8107 -50.1751 16.9417
-24.5116 -48.96 16.7401
-24.1857 -47.7516 16.5334
-23.8282 -46.5517 16.3213
-23.4356 -45.3621 16.1038
-23.0066 -44.1849 15.8823
-21.5329 -41.5848 17.5469
-22.0389 -42.3058 16.6011
-21.5389 -46.8477 30.061
-21.4755 -48.1222 29.9278
-21.4296 -49.3932 29.798
-21.4082 -50.6622 29.6855
-21.6062 -45.5683 30.1832
-17.1579 -35.1849 35.7168
-17.8565 -35.6148 35.4694
-20.2117 -38.5118 33.3762
-21.2325 -41.0774 31.402
-21.6597 -44.2837 30.2823
-20.9071 -39.2929 10.3912
-18.0706 -31.8773 -8.19508
-17.3869 -27.9114 -14.1057
-16.9226 -24.7693 -15.3491
-16.5569 -23.599 -15.5093
-16.103 -22.4591 -15.7137
-12.3912 -29.4236 30.3856
-14.807 -30.5551 32.4891
-13.545 -29.7523 30.8338
-16.8244 -32.7277 34.3151
-17.4084 -34.5026 35.3436
-10.8948 -18.1008 -22.1513
-6.20092 -15.3272 -10.8652
-3.93018 -15.6176 -25.7186
-5.15344 -14.9646 -24.0522
-2.82242 -16.5755 -27.3123
-2.1639 -17.3773 -27.7015
-1.82614 -18.4514 -28.2113
-9.46124 -19.6574 -5.79982
-6.73981 -16.3605 -9.03463
-7.63981 -16.6325 -8.63311
-14.6652 -29.4677 19.165
-14.1243 -29.4307 23.8308
-13.2754 -29.4352 28.3528
-2.86568 -23.3474 -33.4102
-2.79623 -22.7666 -32.3624
-2.83922 -23.8166 -34.4802
-2.65916 -24.1388 -35.5311
-2.26661 -24.3008 -36.4761
1.97244 -25.3351 -37.3643
1.52522 -22.687 -35.4226
1.6052 -21.9608 -34.4456
1.58327 -21.3512 -33.4368
1.41049 -20.9129 -32.4322
1.03108 -20.6845 -31.4949
1.37696 -23.4898 -36.3402
0.40172 -20.6644 -30.7088
-0.541424 -21.8258 -30.6785
-1.60088 -22.012 -30.9023
-25.6585 -70.6365 26.7382
-24.7834 -71.3564 27.3395
-26.4965 -69.9052 26.0994
-27.294 -69.1631 25.4229
-28.049 -68.4128 24.7094
-28.6504 -66.4011 24.0083
-23.9583 -70.8229 28.1664
-23.1127 -70.2761 28.9654
-22.2396 -69.7133 29.7281
-29.6895 -63.6501 22.3219
-25.1004 -49.6468 15.8555
-23.8847 -43.7714 9.0948
-24.5583 -45.3656 10.6582
-25.1025 -46.9765 12.188
-25.0414 -47.4532 13.3621
-24.9269 -47.9414 14.5117
-29.4655 -44.3783 0.966089
-32.9932 -50.7962 5.79837
-30.6731 -46.3737 3.35058
-20.1395 -29.9991 -36.9536
-20.5156 -30.6813 -36.3323
-20.0469 -27.2125 -36.995
-20.2895 -28.0629 -37.28
-19.9704 -26.3407 -36.4002
-19.893 -25.8832 -34.5152
-20.1296 -25.5052 -32.6968
-0.814554 -25.2478 -37.4736
0.00965702 -25.2569 -37.8211
0.96808 -25.2758 -37.7644
-19.7683 -35.4452 -2.37965
-18.3304 -27.3147 -18.7771
-18.1 -27.7732 -17.6095
-17.8951 -28.2016 -16.4063
-17.7364 -28.6759 -15.17
-18.5936 -26.8477 -19.943
-17.6473 -29.2134 -13.9506
-17.624 -29.748 -12.7643
-17.6647 -30.2841 -11.6019
-18.8826 -26.3874 -21.1219
-17.7606 -30.8202 -10.4574
-19.1825 -25.9385 -22.3264
-17.8992 -31.3523 -9.32376
-19.4782 -25.5135 -23.5623
-19.9667 -35.9253 -1.22518
-19.7543 -25.1286 -24.8179
-20.1494 -36.4046 -0.0659152
-19.9931 -24.7813 -26.0734
-20.32 -36.8811 1.09827
-20.1827 -24.4637 -27.3235
-20.4819 -37.3512 2.26744
-21.3463 -38.821 3.61969
-20.3168 -24.1747 -28.5727
-21.5027 -39.2681 4.80749
-21.6569 -39.7057 6.00278
-20.3915 -23.9143 -29.8236
-21.8079 -40.1346 7.20607
-23.2537 -42.6736 8.85727
-22.6137 -41.6039 8.63408
-22.5403 -43.0222 15.6576
-21.411 -51.9301 29.6005
-18.6344 -36.0879 34.9301
-19.3354 -36.6232 34.1688
-19.9411 -37.2156 33.2743
-20.696 -39.1408 32.3942
-21.1343 -39.7763 31.3838
-21.681 -42.9951 30.3494
-21.6525 -41.7039 30.3786
-21.2405 -40.0181 12.8039
-21.3792 -40.3822 14.0063
-21.0792 -39.6577 11.5976
-21.4816 -40.7592 15.2005
-21.111 -39.1202 7.0023
-20.951 -38.698 5.80843
-20.7937 -38.2619 4.62177
-21.2714 -39.5304 8.20323
-20.6384 -37.8123 3.44176
-21.4311 -39.9301 9.41055
-21.5352 -41.1578 16.3822
-17.2264 -25.9472 -15.2649
-17.5441 -27.246 -15.4203
-11.995 -18.1008 -18.9428
-13.0619 -18.4962 -18.3261
-14.0757 -19.102 -17.8376
-14.9514 -19.8859 -17.4326
-15.6872 -20.8176 -17.0929
-16.2857 -21.8614 -16.808
-14.6631 -30.2311 31.2668
-15.8517 -31.2658 32.8877
-17.5829 -33.7641 34.5727
-16.8045 -32.1207 33.2417
-12.0115 -18.0651 -20.2659
-11.9945 -18.1034 -21.554
-6.46273 -15.8328 -9.83907
-6.40141 -14.2462 -15.075
-7.00036 -14.0846 -17.2165
-7.2834 -14.0701 -15.9009
-6.81022 -14.1374 -18.5359
-6.65968 -14.2308 -19.8135
-6.67891 -14.3394 -13.8863
-6.89702 -14.5478 -12.7068
-6.53006 -14.362 -21.0685
-7.10918 -14.8804 -11.5631
-6.40362 -14.5321 -22.3142
-4.99604 -15.2483 -25.2769
-3.74993 -15.9854 -26.9232
-6.2684 -14.7434 -23.5565
-5.48556 -19.1552 -26.3584
-6.55361 -18.9699 -25.7603
-4.4268 -19.3108 -26.9797
-7.6261 -18.7727 -25.1704
-8.70257 -18.5769 -24.5836
-3.37611 -19.4291 -27.6634
-2.24964 -19.5566 -28.5179
-9.78524 -18.3966 -23.9982
-10.8763 -18.2563 -23.413
-11.2294 -22.6163 -2.93771
-11.0393 -21.8125 -3.85825
-11.4037 -23.3619 -1.99734
-10.8377 -20.9629 -4.747
-11.5471 -24.0375 -1.06484
-10.6287 -20.0782 -5.60389
-12.9393 -26.3439 2.38242
-9.22666 -18.7421 -6.62634
-9.00203 -17.8319 -7.46136
-8.81045 -16.9602 -8.32116
-13.8927 -28.592 8.14264
-14.0958 -28.8466 9.37659
-14.3003 -29.0463 10.6323
-14.5065 -29.2083 11.9017
-14.7173 -29.346 13.1776
-14.9346 -29.4649 14.4578
-15.1572 -29.566 15.7441
-15.3802 -29.6546 17.0372
-15.5979 -29.7399 18.3349
-14.862 -29.5349 20.4604
-15.0348 -29.6161 21.754
-15.1766 -29.7123 23.0516
-14.1822 -29.4892 25.0981
-14.2153 -29.5493 26.338
-14.2771 -29.644 27.5628
-13.3987 -29.5697 29.5967
-2.67146 -22.1049 -31.3543
-1.63673 -24.3344 -37.1879
1.18246 -24.3537 -37.1494
-0.444873 -20.8563 -30.2238
-21.5274 -55.7304 29.532
-21.5894 -56.9959 29.5579
-21.6597 -58.2612 29.6005
-21.4749 -54.464 29.5264
-21.7388 -59.5273 29.6594
-21.4347 -53.1971 29.5476
-21.8277 -60.7939 29.7332
-21.9238 -62.0611 29.8157
-22.0205 -63.3298 29.8944
-22.1087 -64.6015 29.9532
-22.1799 -65.8776 29.9761
-22.2281 -67.157 29.9511
-22.2495 -68.4373 29.8701
-27.9702 -67.1542 24.7869
-29.1127 -64.3992 23.1759
-28.5018 -65.1482 24.0076
-24.7516 -48.4431 15.6379
-23.9685 -44.2303 10.3622
-24.5791 -45.8213 11.8971
-27.0554 -41.1396 -4.76424
-26.646 -40.72 -5.87775
-26.2265 -40.3009 -6.9891
-27.4516 -41.5608 -3.64749
-25.8009 -39.8815 -8.09931
-25.3721 -39.4607 -9.20848
-24.9426 -39.0375 -10.3164
-27.8321 -41.9842 -2.52686
-24.516 -38.611 -11.4238
-24.0983 -38.1801 -12.5326
-23.6982 -37.7432 -13.6457
-23.3265 -37.2984 -14.7657
-22.9924 -36.8455 -15.8945
-22.7005 -36.3863 -17.0326
-22.4515 -35.9241 -18.18
-28.1938 -42.4109 -1.40199
-22.244 -35.4629 -19.3364
-22.0784 -35.007 -20.5012
-28.5329 -42.8428 -0.272438
-21.956 -34.5603 -21.6743
-21.8764 -34.1268 -22.8547
-21.8355 -33.7099 -24.0412
-21.8242 -33.3124 -25.2321
-21.8309 -32.933 -26.4264
-21.8475 -32.5638 -27.6213
-21.8754 -32.1929 -28.801
-21.4318 -32.532 -30.7729
-21.3656 -32.2458 -31.9064
-21.2507 -31.9562 -33.0884
-21.0797 -31.6285 -34.2678
-20.8361 -31.2208 -35.3846
-28.8466 -43.2813 0.862209
-33.7129 -52.4612 7.01749
-33.8111 -53.0078 8.13857
-33.8459 -53.573 9.25999
-33.8156 -54.1577 10.3764
-33.7175 -54.763 11.4818
-33.5519 -55.3891 12.5711
-33.3232 -56.0342 13.6406
-33.037 -56.6959 14.6871
-33.1672 -51.3309 6.89622
-32.175 -49.1308 4.63395
-32.41 -49.6619 5.73419
-31.5555 -47.9816 4.58241
-30.9164 -46.8424 4.5108
-29.7656 -44.8189 2.10681
-30.0351 -45.2678 3.25488
-20.6553 -28.8482 -37.1522
-20.0309 -25.467 -35.5841
-20.0941 -25.3316 -33.6766
-20.3298 -24.623 -31.9145
-20.4068 -23.6862 -31.0782
-21.9552 -40.5558 8.41722
-32.6984 -57.3724 15.7087
-32.3146 -58.0624 16.7056
-31.8954 -58.7641 17.6804
-31.449 -59.4754 18.635
-30.9808 -60.1965 19.57
-30.4931 -60.9272 20.4853
-29.9865 -61.6664 21.3807
-29.459 -62.4105 22.2582
-24.3749 -47.2475 15.4143
-23.9659 -46.062 15.1847
-23.5218 -44.8895 14.9507
-23.0423 -43.7321 14.7147
-22.0334 -41.8786 15.4305
-22.1247 -47.446 29.1178
-22.1115 -48.7192 29.0228
-22.1422 -46.1708 29.2091
-22.1102 -49.9912 28.935
-22.1243 -51.2616 28.8638
-22.1526 -44.8931 29.2863
-18.1835 -34.8878 34.7756
-20.4674 -37.8408 32.3116
-21.5593 -40.4128 30.3669
-22.1417 -43.6126 29.3406
-21.5883 -40.3199 10.6222
-17.111 -24.1464 -16.3717
-17.3764 -25.2965 -16.2141
-16.7547 -22.9831 -16.5698
-15.728 -30.8598 31.6785
-14.5155 -29.9835 30.031
-17.6405 -33.1052 33.5491
-11.9737 -18.1936 -22.8277
-7.3272 -15.3417 -10.4876
-4.82944 -15.572 -26.4949
-6.12151 -14.9941 -24.7961
-2.61478 -16.9973 -28.5069
-1.84624 -17.7957 -28.9185
-3.57506 -16.3811 -28.1164
-1.19404 -18.7003 -29.4278
-1.33877 -19.317 -29.0705
-10.4171 -19.1714 -6.43739
-12.5595 -24.4549 -0.76063
-7.53305 -15.9185 -9.51724
-8.64755 -16.1736 -9.21714
-15.8051 -29.8314 19.6339
-15.269 -29.8104 24.3649
-14.3827 -29.7898 28.7934
-3.77608 -22.6124 -33.0423
-3.74817 -23.0437 -34.1426
-3.71473 -22.0813 -31.9534
-3.57081 -23.3325 -35.2196
-3.17534 -23.4605 -36.1888
-2.52934 -23.458 -36.9162
0.512533 -22.5579 -36.0864
0.631435 -21.7871 -35.1475
0.687874 -21.0977 -34.1418
0.656041 -20.5204 -33.0998
0.492181 -20.0976 -32.0506
0.128454 -19.8525 -31.0269
0.34942 -23.3992 -36.905
-0.552446 -19.7601 -30.0058
-1.44148 -21.1469 -30.1383
-2.52084 -21.3729 -30.3964
-24.8375 -70.1077 27.5639
-25.6807 -69.3826 26.9235
-26.4851 -68.6477 26.2464
-27.2485 -67.9037 25.5335
-27.8527 -65.8969 24.8133
-23.9995 -69.5662 28.3661
-23.1391 -69.0095 29.1373
-28.9059 -63.1556 23.1204
-23.3616 -43.1183 10.1023
-24.0283 -44.6797 11.6113
-24.5644 -46.2852 13.0979
-24.4993 -46.7594 14.2693
-21.9044 -31.8327 -29.9574
-29.133 -43.7261 2.00245
-32.605 -50.2151 6.80143
-30.2679 -45.7272 4.41495
-21.0389 -29.5314 -36.5983
-21.3591 -30.0923 -35.7178
-20.7437 -26.9193 -37.4946
-20.4717 -26.0535 -37.2191
-21.1138 -27.7052 -37.3812
-20.3145 -25.1526 -36.6397
-20.1721 -24.5636 -34.4958
-20.2749 -24.4746 -33.1334
-0.800918 -24.3114 -37.5485
0.165755 -24.306 -37.5158
-18.0663 -26.5714 -17.8597
-18.3289 -26.0924 -18.997
-17.8287 -26.9991 -16.7269
-18.6192 -25.6089 -20.1546
-18.9233 -25.128 -21.3413
-19.2258 -24.6391 -22.5772
-19.5273 -24.2104 -23.8696
-19.8045 -23.8613 -25.1655
-20.0269 -23.5359 -26.433
-20.1916 -23.238 -27.6936
-20.2934 -22.972 -28.9573
-20.3305 -22.7406 -30.2274
-22.7403 -42.0321 9.86343
-22.0989 -40.9691 9.63479
-22.5272 -42.5923 14.4786
-22.1547 -52.5302 28.8164
-18.9058 -35.3798 34.0104
-19.551 -35.9474 33.127
-20.1235 -36.5618 32.1817
-20.9407 -38.4804 31.3182
-21.3872 -39.1251 30.313
-22.0933 -42.3305 29.3647
-21.9932 -41.0491 29.3541
-21.974 -41.474 14.2428
-21.8711 -41.0849 13.0427
-21.7382 -40.7029 11.8344
-17.5586 -26.2849 -16.1176
-14.1054 -18.7979 -19.1212
-13.0844 -18.3274 -19.6637
-15.0278 -19.4731 -18.6568
-15.8184 -20.3252 -18.2642
-16.4657 -21.316 -17.9355
-16.9678 -22.4068 -17.6619
-15.5876 -30.5416 30.4446
-16.7172 -31.6359 32.0581
-18.3435 -34.199 33.8057
-17.6081 -32.5511 32.397
-13.0808 -18.2554 -20.9652
-13.0666 -18.2553 -22.2469
-7.59197 -14.1227 -14.647
-8.28161 -13.9589 -16.6866
-8.04748 -13.9925 -17.9804
-7.85481 -14.079 -19.2665
-7.69322 -14.2066 -20.5361
-7.83591 -14.2818 -13.4474
-8.05419 -14.5599 -12.2962
-7.54834 -14.3696 -21.7952
-8.267 -14.9671 -11.2004
-7.40767 -14.5672 -23.0489
-5.96705 -15.2797 -26.029
-4.66637 -15.9288 -27.7005
-7.26443 -14.7969 -24.2988
-7.6238 -19.0678 -26.3902
-6.55423 -19.3146 -26.9636
-5.4889 -19.5681 -27.5424
-4.42958 -19.828 -28.1407
-8.69726 -18.8322 -25.8175
-9.77623 -18.6151 -25.2444
-3.37523 -20.1207 -28.7864
-1.34008 -20.1979 -29.505
-2.37324 -20.5548 -29.482
-10.8628 -18.4327 -24.67
-11.9571 -18.3147 -24.094
-12.3025 -23.052 -2.70652
-12.1358 -22.2737 -3.65077
-11.956 -21.4476 -4.56499
-12.4483 -23.7766 -1.74166
-11.7679 -20.5832 -5.44589
-11.5752 -19.691 -6.29621
-13.8988 -26.2247 1.6155
-14.0636 -26.8135 2.70036
-10.2087 -18.2614 -7.26467
-10.0109 -17.3749 -8.10798
-14.8017 -28.698 7.29304
-9.82519 -16.5463 -8.98836
-15.0032 -29.0064 8.51632
-15.2061 -29.2486 9.77089
-15.4071 -29.44 11.0479
-15.6109 -29.5988 12.333
-15.8244 -29.7383 13.617
-16.0471 -29.8626 14.9012
-16.272 -29.9744 16.1906
-16.4918 -30.0821 17.4865
-16.7025 -30.1956 18.7869
-15.9979 -29.9382 20.9327
-16.1716 -30.0669 22.2358
-16.3205 -30.2171 23.5689
-15.2448 -29.8583 25.6267
-15.2266 -29.92 26.802
-15.3223 -30.0733 27.9836
-3.606 -21.4824 -30.887
-1.67067 -23.3986 -37.2822
-22.3292 -56.3261 28.8301
-22.4093 -57.5889 28.8767
-22.2591 -55.0624 28.8021
-22.4994 -58.8514 28.9392
-22.2003 -53.7971 28.7961
-22.5997 -60.1153 29.0158
-22.7085 -61.3798 29.1017
-22.8204 -62.6457 29.1871
-22.9268 -63.9136 29.2585
-23.0185 -65.1847 29.3004
-23.0877 -66.4596 29.2996
-23.1291 -67.7357 29.2471
-27.1633 -66.6432 25.5903
-28.3213 -63.8999 23.9667
